# 3D point list with one line of data per point:
#   POINT3D_ID, X, Y, Z, R, G, B, ERROR, TRACK[] as (IMAGE_ID, POINT2D_IDX)
# Number of points: 358, mean track length: 2.8100558659217878
1 -2.6993000368469908 -1.117850613667364 2.7195517763016315 96 95 93 0.59502435342966686 13 3869 11 91 9 2943
2 -2.6741074684323221 -1.1159179970150204 2.7205327683347669 30 29 24 0.48047782053263682 13 6488 11 94 9 4795
3 -2.666558654410971 -1.1142271053513872 2.7218375045297689 77 73 62 0.38536455481731058 13 5599 11 95 9 4858
4 -2.6286442273519026 -1.1232168885289893 2.7156708615196195 63 59 50 0.38078037202146087 13 5604 11 97 9 4921
5 -2.6373499820369402 -1.1159611554446573 2.7205518671732896 51 47 36 0.51233868998176468 13 5602 11 98 9 4919
6 -2.6794187801289855 -1.1061613707725835 2.7251921465274465 140 133 123 0.51187004151269111 13 5593 11 125 9 4854
7 -2.637310989304904 -1.1091127005250601 2.7246683918018464 97 93 84 0.76064147774264301 13 4070 11 128 9 3217
8 -2.7923098063349183 -1.0926834603932845 2.7335805072000672 150 142 131 0.22072567196367862 13 3821 11 153 9 2862
9 -2.6879621692215663 -1.0935121283624407 2.7337815044821072 146 140 132 0.36266924862000538 13 5596 11 159 9 4851
10 -2.7662595549117315 -1.0801206966155914 2.740729834551495 68 65 61 0.31384697373543519 13 3899 11 198 9 3009
11 -2.8182499478242198 -1.0638755977854506 2.7505338000266217 93 92 87 0.39811051763268107 13 3847 11 229 9 2890
12 -2.6915332396129767 -1.0680317229781369 2.7480286482968652 80 77 70 0.41263753618453375 13 5697 11 240 9 3296
13 -2.799771663978885 -1.058668280142379 2.7532308990192291 156 148 137 0.13228466117116736 13 5547 11 273 9 4773
14 -2.7223406251771087 -1.0598959811522768 2.7526617264634048 112 105 99 0.31546187869815384 13 5693 11 281 9 4971
15 -2.6763856946913029 -1.0538028023672534 2.7571186922980111 143 141 129 0.55475468180045806 13 5836 11 289 9 5112
16 -2.794993144628843 -1.0380475874102177 2.764914410165106 70 66 55 0.42973498127060572 13 4030 11 323 9 4832
17 -2.6300156929144469 -1.0502395107672935 2.7591675345028839 124 121 114 0.3115035248196647 13 6788 11 339 9 5260
18 -2.6032441808176401 -1.0488345526711293 2.7617074084626236 134 124 115 1.1424922534251258 13 6843 11 344
19 -2.5850005370409792 -1.0501136481760656 2.758770720117659 67 58 50 0.52484616478610935 13 6844 11 345 9 6470
20 -2.5850005370409792 -1.0501136481760656 2.758770720117659 67 58 50 0.52484616478610935 13 6845 11 346 9 6471
21 -2.741155763970645 -1.02901810543974 2.7682827721697718 54 53 48 0.47562616708953631 13 6626 11 393 9 6267
22 -2.6905107712388943 -1.0312823247676266 2.7690712376131783 137 136 131 0.41030688831952372 13 5914 11 397 9 5181
23 -2.6385024361136398 -1.0358907972820832 2.7683133018817916 58 55 50 0.76728454861698159 13 5995 11 400 9 7210
24 -2.812267851105775 -1.0107557225083816 2.7795186348887748 158 156 141 0.10390356844176249 13 5680 11 460
25 -2.7455956748741239 -1.0181198508135785 2.7763563568875322 69 68 66 0.79619392980858095 13 6668 11 468 9 6304
26 -2.6979896733519984 -1.0120054231661286 2.7798140302992689 163 162 158 0.71538221066559393 13 5989 11 472 9 5253
27 -2.5957987600928893 -1.0222173771140746 2.7762072036132528 40 37 31 0.70602714591725191 13 6956 11 476 9 6571
28 -2.5988297053520832 -1.0158835500620209 2.7789969153977188 63 55 53 1.0661739014888942 13 6953 11 477 9 6570
29 -2.8503899724345629 -0.99912439517146312 2.7849269663198482 160 157 150 0.6054164379100706 13 5629 11 517
30 -2.7874827396505202 -1.0084043021618487 2.7801183984206359 97 91 79 0.57652052027188905 13 5746 11 524 9 5016
31 -2.7874055043701444 -0.99980123518029296 2.785067818254908 164 164 156 0.75968497872522089 13 5747 11 532 9 6262
32 -2.7473328389028251 -0.99543600411692212 2.7883879722915683 86 85 80 0.56157875348991604 13 5906 11 542 9 6366
33 -2.633730113617692 -0.99626482418775064 2.7904951140117542 40 39 37 0.57962014825274255 13 6950 11 548 9 5457
34 -2.8014713254141439 -0.99139404618499949 2.7897752998403558 172 163 154 0.046144909744720769 13 6618 11 603
35 -2.807613474218861 -0.98520851709200108 2.7926666130104714 166 159 149 0.1454155517352802 13 4399 11 605
36 -2.8083725672617423 -0.97973657830806649 2.7950334740710669 163 159 151 0.27763943662662388 13 5816 11 608
37 -2.7903902252326396 -0.98327042800345121 2.7931986577373338 170 166 155 0.5723079689680638 13 5818 11 612 9 5089
38 -2.7205166400728693 -0.98151524903354392 2.7969916723203037 109 108 104 0.32023614359225561 13 6832 11 622 9 6458
39 -2.8231426837502274 -0.97436852231568527 2.7983900600209837 170 167 160 0.10760757610456573 13 5812 11 677
40 -2.8073968662957984 -0.97183835870652402 2.800819774398621 72 65 59 0.28008296710986019 13 5814 11 680
41 -2.7391594970220363 -0.97831018191853858 2.7972631184651551 104 104 102 0.33990440126603677 13 5985 11 685 9 5246
42 -2.7272211151042178 -0.9774911112182656 2.7987423012608774 158 158 156 0.25608143367086394 13 6831 11 686 9 6455
43 -2.7058288263947023 -0.97500357422641948 2.8007546133443717 97 96 94 0.21679418334805453 13 6114 11 687 9 5381
44 -2.6942558621347104 -0.97258156794227946 2.8014506772925873 51 51 49 0.42848601533656233 13 6196 11 688 9 5448
45 -2.6596961740429723 -0.97866370855143847 2.8012903113352565 172 171 166 1.0635281909598924 13 6999 11 690 9 6608
46 -2.8164911661864251 -0.95898287948020389 2.8069636683088408 173 169 160 0.46819551114676006 13 5894 11 739
47 -2.7510566804678231 -0.95593657839698021 2.8089784370396478 72 71 69 1.1612389656195592 13 6828 11 744 9 6501
48 -2.7439692690868958 -0.95788477591920784 2.8094021867599004 86 83 79 0.56762270615800092 13 6894 11 745 9 6504
49 -2.7441015777083102 -0.95482805327639442 2.8101298755098294 170 167 162 0.6768617640726019 13 6108 11 747 9 6502
50 -2.7904673393584907 -0.92918202700524 2.8226246435531426 161 161 159 0.023532733715256045 13 6888 11 863
51 -2.7711675169776426 -0.92859773846182214 2.8219476080129962 50 50 48 0.97720882340385817 13 6107 11 864
52 -2.7485178833081485 -1.120552773683007 2.7171225266438004 87 84 77 0.34176695909067289 13 5496 11 3748 9 4707
53 -2.6288404952723687 -1.129281041431887 2.7095207607253089 82 75 63 0.37215739288347655 13 6520 11 3757
54 -2.7623909796142856 -1.1161663408158784 2.7200521328775635 59 56 49 0.37783266566033485 13 6436 11 3784 9 6036
55 -2.6461444768404681 -1.1164272604968257 2.7206471231063669 51 47 38 0.52583856942486562 13 5600 11 3789 9 4861
56 -2.5471323262010785 -1.109527474169024 2.7125045773347081 178 163 144 0.68622612315190568 13 6697 11 3796
57 -2.7706464498135279 -1.1046056930176469 2.7270340614639088 127 124 117 0.36783363705003064 13 5506 11 3815 9 4698
58 -2.6545011225178516 -1.1105823400827344 2.7238555233742079 112 107 101 0.45934784514824001 13 6518 11 3821 9 6133
59 -2.6589446070913363 -1.106253701916833 2.7260581886027917 119 114 108 0.53029795054631101 13 6517 11 3822 9 6184
60 -2.7147909837435771 -1.0995294954023569 2.7291278479127308 63 64 59 0.54818647886438299 13 5556 11 3848 9 4790
61 -2.6917195751377507 -1.0907762373164516 2.7350086674483571 159 154 143 0.60534126927148668 13 6516 11 3850 9 6173
62 -2.6729845277756805 -1.0955531498409834 2.7323828071053464 138 135 128 0.50745786600727383 13 6551 11 3852 9 6180
63 -2.5494479615098498 -1.094712434640132 2.7247475703843715 176 156 131 0.24277147545304439 13 7318 11 3856
64 -2.7927497123669074 -1.0784559600564902 2.7422713506441836 148 142 130 0.28549274980696032 13 5524 11 3885 9 4729
65 -2.7927497123669074 -1.0784559600564902 2.7422713506441836 148 142 130 0.28549274980696032 13 5525 11 3886 9 4730
66 -2.7505843278290354 -1.0856730097196865 2.7378677882197633 69 69 62 0.74877453634835212 13 5552 11 3888 9 7017
67 -2.6995083902705845 -1.0781957932653152 2.7421838233104903 82 79 70 0.21756456778932712 13 7203 11 3889 9 7073
68 -2.6854102337092418 -1.0874167673556003 2.7371203677311073 151 147 138 0.40039282744943666 13 6549 11 3891 9 6178
69 -2.6854102337092418 -1.0874167673556003 2.7371203677311073 151 147 138 0.40039282744943666 13 6550 11 3892 9 6179
70 -2.6708643911419419 -1.0896911974651906 2.7360134297848462 117 110 100 0.41253954483491456 13 6552 11 3893 9 6182
71 -2.6860145676813558 -1.0803737336252734 2.7416031502589457 156 147 132 0.28675757071712943 13 6548 11 3894 9 6176
72 -2.6185275318443715 -1.0832275447181896 2.7403251506711941 150 145 140 0.57360287727125936 13 6686 11 3898 9 6329
73 -2.6042067820815915 -1.0854402407384103 2.7391977987889171 100 95 89 0.73985334456710194 13 6687 11 3899 9 6333
74 -2.606982571547118 -1.0824817015803727 2.7404830358380536 70 65 59 1.0228680138127502 13 6689 11 3900 9 6331
75 -2.5374527704678624 -1.0823251780681729 2.7332095831297609 93 76 56 0.12074002501623438 13 6849 11 3906
76 -2.801052817642403 -1.0720674291912693 2.7459646821896753 67 66 61 0.3964940386180536 13 5526 11 3934 9 4722
77 -2.7929913008764826 -1.0665854644500847 2.7489492731658225 117 116 111 0.24716599934083736 13 6477 11 3936 9 6085
78 -2.7343982460207661 -1.0673696898815153 2.7478491258109412 69 66 61 0.62841757972316992 13 6545 11 3939 9 6167
79 -2.7144093519828396 -1.0720464190905119 2.7451601970572308 94 87 76 0.28310290715185871 13 5640 11 3940 9 4908
80 -2.6340664745539035 -1.066401894065895 2.7491546027584373 84 83 81 0.31984954245503966 13 6683 11 3945 9 6324
81 -2.808686699200686 -1.0607799475412394 2.75179668466355 59 58 53 0.44272222433519165 13 6473 11 3982 9 6059
82 -2.6995714518196139 -1.0622744028805435 2.7514114904373139 154 152 140 0.3732767297745449 13 7226 11 3985 9 7103
83 -2.6519891441228571 -1.0619532331326549 2.7511996680147481 131 128 123 0.46808827099781986 13 7279 11 3988 9 6315
84 -2.6472071258473906 -1.0606708223976486 2.753044755782069 119 118 114 0.40061315140843395 13 6678 11 3989 9 6321
85 -2.6404422845653888 -1.0602735760804602 2.7531572333709473 153 152 148 0.37077540148421217 13 6681 11 3991 9 6322
86 -2.6404422845653888 -1.0602735760804602 2.7531572333709473 153 152 148 0.37077540148421217 13 6682 11 3992 9 6323
87 -2.5926381128328617 -1.0654088852694872 2.7504896561336962 70 63 57 1.1495196323798844 13 6791 11 3993 9 6421
88 -2.8161060432259921 -1.0372233683364736 2.7641415237231328 138 135 128 0.79594997255780109 13 5576 11 4014 9 6117
89 -2.7871612656069091 -1.0406875446376573 2.7629099706614255 56 53 44 0.36932862958412471 13 6535 11 4016 9 7039
90 -2.7564798458529935 -1.0441160161916758 2.7610934785487 170 162 151 0.23351069253470114 13 6542 11 4017 9 7065
91 -2.7564798458529935 -1.0441160161916758 2.7610934785487 170 162 151 0.23351069253470114 13 6543 11 4018 9 7064
92 -2.7397288420308863 -1.0388491709876659 2.7638798620274709 103 103 95 0.054363550756345476 13 6587 11 4022 9 6224
93 -2.6770369973705308 -1.0408040326218575 2.7633407008537092 112 109 104 0.43165915124885856 13 6675 11 4023 9 6312
94 -2.6620171239494654 -1.0396872179563008 2.7647381357108616 141 138 131 0.27004849311147278 13 6733 11 4025 9 6374
95 -2.7619679317047816 -1.0287195065508405 2.7686160085116471 66 59 53 0.31277404185453589 13 6584 11 4072 9 6220
96 -2.5632630595073307 -1.0250004698867219 2.7731996302759794 156 138 116 1.6973800659122205 13 7475 11 4082 9 7329
97 -2.5632630595073307 -1.0250004698867219 2.7731996302759794 156 138 116 1.6973800659122205 13 7476 11 4083 9 7330
98 -2.8261166854897075 -1.0154716186124626 2.7767735482247633 163 156 148 0.084011827342558354 13 5632 11 4113
99 -2.8186230559701864 -1.0163370943265244 2.7760835441136327 69 65 62 0.46525784685034399 13 6531 11 4115
100 -2.816064517786204 -1.0143977802049506 2.7771736745751876 159 157 144 0.38106423765147035 13 6533 11 4116 9 6155
101 -2.7791564047067938 -1.0124511620742582 2.7785565468160951 83 80 75 0.62371075546256893 13 5748 11 4118 9 5017
102 -2.7162819743655864 -1.0161564204579421 2.7757630051555195 50 51 46 0.67478367709375453 13 6729 11 4126 9 7175
103 -2.681033128070816 -1.0202466668225885 2.7746278454225766 67 66 64 0.83060588085472054 13 6782 11 4130 9 7207
104 -2.6881353319464614 -1.0184679377228116 2.7766276634526754 133 129 126 0.61433172914354983 13 6781 11 4131 9 6412
105 -2.6290141716061557 -1.0161578455930351 2.7793649776544243 154 144 134 0.74333999480438406 13 7409 11 4133 9 6518
106 -2.7878747762998342 -1.0041815913012988 2.7810749745672125 158 154 143 1.0023117531051682 13 6619 11 4169 9 6261
107 -2.7347215116947461 -1.0014421719478082 2.7840858527448096 165 161 160 0.89036368937102395 13 7306 11 4171 9 7173
108 -2.6288798466393795 -1.0064380121713727 2.7848555459969799 53 49 44 0.38137232202889265 13 7442 11 4175 9 7295
109 -2.8488138950460256 -0.98820867628837539 2.791276614324584 122 121 117 0.36580856214135032 13 5676 11 4214
110 -2.8129798316937924 -0.99339475766253615 2.789650473932427 70 67 61 0.056834330885862219 13 5743 11 4219
111 -2.7999355851815255 -0.98282645626859422 2.7939008473330644 175 171 164 0.089431826346243262 13 6663 11 4224
112 -2.7766454651708319 -0.97987917611444664 2.7959894968114933 182 177 172 0.79213892023302368 13 6727 11 4227 9 6363
113 -2.7420862951169083 -0.98055108992245921 2.7958132945477643 160 159 155 0.76126331972844019 13 6774 11 4228 9 6406
114 -2.7299336054500447 -0.98920322051783249 2.7924879212861891 159 158 154 0.38703407414217478 13 7334 11 4229 9 7205
115 -2.7356780723302534 -0.9856341584937478 2.7928479813233245 147 146 142 0.50528404933203908 13 6778 11 4230 9 6407
116 -2.654411281508815 -0.99091980715421579 2.7919229669793415 154 153 149 0.45651572664315365 13 6948 11 4235 9 6566
117 -2.8538888513110945 -0.97972454337543358 2.7958236981069033 167 163 154 0.11895806737534362 13 6575 11 4277
118 -2.7846099114662355 -0.97858659790992919 2.7955334033024832 178 178 170 0.34652730736465509 13 6725 11 4279 9 7170
119 -2.7462103050385278 -0.97200084991879687 2.8008957529591338 91 90 86 0.86679684244339927 13 6829 11 4281 9 6451
120 -2.7308688096368772 -0.97476956904490841 2.7995705797780954 81 81 79 0.41121596861014204 13 7368 11 4282 9 7233
121 -2.7112593015387807 -0.97413830158020898 2.8001713804773916 90 89 87 0.36225871138132426 13 7406 11 4283 9 7262
122 -2.7171220256920687 -0.96364606413104603 2.8057197993738772 170 169 165 0.65807242497480956 13 6896 11 4284 9 6509
123 -2.6750251329213119 -0.97199524314933861 2.8027417327535913 86 85 83 0.24098934422720072 13 7767 11 4286 9 7729
124 -2.6673129222698453 -0.97371739462322182 2.8020151709766323 163 162 158 0.15233892209569097 13 6998 11 4287 9 7323
125 -2.6782245101114195 -0.96342255516605613 2.8074405032656622 163 163 161 0.85772971672014175 13 7468 11 4288 9 7745
126 -2.8103315137001812 -0.94944946542431541 2.8112656669201375 84 85 80 0.003959400908731577 13 7331 11 4331
127 -2.7801068120419248 -0.95829417518763904 2.8067742598711116 42 41 39 0.66543106916686356 13 6769 11 4336 9 7199
128 -2.7745478210100685 -0.94753652276254807 2.8130540604975653 177 177 175 0.21468043786873509 13 7363 11 4339
129 -2.7275119762820221 -0.96016507744506285 2.8078679905548389 182 179 174 0.60651462405029855 13 6895 11 4341 9 7261
130 -2.7133755433145956 -0.94935026576687309 2.813074052762937 68 68 68 0.69465460192734607 13 6941 11 4342 9 6560
131 -2.766160207419837 -0.94376448039371086 2.8147005828514939 144 144 142 0.37804066882756315 13 6891 11 4384
132 -2.771892245438873 -0.92483510864712604 2.8252169480301177 133 133 131 0.10718094889523166 13 7434 11 4411
133 -2.7666081112766427 -0.92221578566823714 2.8258701074561294 76 76 76 0.61825147929069657 13 7435 11 4412
134 -2.8613963233936466 -0.84846433446559022 2.8543998312778385 67 67 67 0.77327839797059894 13 7461 11 4568
135 -2.7409734022469894 -1.1180233291608481 2.7188167211899734 58 55 50 0.44657784436323561 13 6440 11 6239 9 6047
136 -2.7097309471139459 -1.1196739091386863 2.7179613570619439 53 52 47 0.42633569524536102 13 6453 11 6240 9 6068
137 -2.690205256678643 -1.1176674521002465 2.7192693725726906 37 38 32 0.37017255140475647 13 6458 11 6243 9 7024
138 -2.6524829248634787 -1.1167796671735879 2.7203841953182462 103 95 84 0.34710390429139815 13 7183 11 6244 9 7053
139 -2.6424820803134565 -1.1148426569366674 2.7209397751738438 90 86 75 0.43978082728153628 13 6519 11 6245 9 6185
140 -2.7362927936136945 -1.1044309493313427 2.7277885429080944 158 154 142 0.75915020686827273 13 5529 11 6261 9 6067
141 -2.6416591662140707 -1.1107046256619177 2.7234883532116667 33 30 25 0.60947273111163047 13 7612 11 6265 9 7075
142 -2.5711953059825663 -1.1074644882603066 2.7163710415267186 144 123 104 0.88830534872252653 13 7652 11 6267
143 -2.8044266738406334 -1.0912720038862 2.7345469644187279 155 139 123 0.55749966220653702 13 6437 11 6278 9 6042
144 -2.7689622237750475 -1.0886233122466173 2.7362777499141204 74 71 64 0.4699136896890263 13 6450 11 6280 9 6062
145 -2.7611047710631369 -1.0899505244346699 2.7353292671561595 77 74 67 0.21579529393034225 13 6451 11 6281 9 6997
146 -2.7183844417446084 -1.0926014399330826 2.7335168009136659 136 130 123 0.33856199756463118 13 7156 11 6282 9 7020
147 -2.7166575446992978 -1.0895524973067507 2.7345896742935731 62 61 56 0.19634095009487199 13 5586 11 6283 9 6125
148 -2.6948309682337439 -1.1006391055956857 2.7286303258303488 78 75 70 0.24750460437665245 13 7177 11 6285 9 7045
149 -2.5927851813264753 -1.0810544973069884 2.7419729010418239 100 91 82 1.0747011092212373 13 7317 11 6306 9 7186
150 -2.7936363599346064 -1.0697189138108198 2.7472194209630088 71 70 64 0.1354809474900534 13 6448 11 6334 9 6994
151 -2.7936363599346064 -1.0697189138108198 2.7472194209630088 71 70 64 0.1354809474900534 13 6447 11 6335 9 6995
152 -2.7598977233051083 -1.0746083951904517 2.7440525232858803 165 160 141 0.28588013415666053 13 7151 11 6336 9 7015
153 -2.7092493644346929 -1.0717397498568606 2.745527630326893 169 159 148 0.36406252419669949 13 7201 11 6340 9 7071
154 -2.6956916914265849 -1.0681150414576006 2.7476380248165171 153 149 138 0.39536194916589257 13 7225 11 6342 9 7102
155 -2.6686995625917467 -1.0729128134830557 2.7448458767301509 55 52 45 0.64096139245735839 13 7230 11 6344 9 7124
156 -2.6494407824315362 -1.0696500072670165 2.7456345288352386 56 53 48 0.24134764324169708 13 7252 11 6345 9 7130
157 -2.6272826290095033 -1.0740776951785844 2.7449163495145927 90 88 85 0.46958050265147272 13 7282 11 6346 9 7148
158 -2.6240172507231088 -1.0702465378216977 2.7470608319574525 151 147 144 0.23190572018298852 13 7674 11 6347 9 7149
159 -2.5921979905322425 -1.0771841139893896 2.7439178874063685 51 48 41 1.0313002232021031 13 6734 11 6348 9 7188
160 -2.8015364358318768 -1.0611221319706474 2.7514010355718224 62 61 56 0.27530529331727344 13 6475 11 6369 9 7012
161 -2.7578998381172029 -1.0607830521536603 2.7517921423508205 158 151 141 0.38237284880881178 13 7172 11 6372 9 7042
162 -2.6698718405761372 -1.0542223614540456 2.7559253878871166 127 123 119 0.23300618924529803 13 7672 11 6379 9 7647
163 -2.6305920305883634 -1.0644945412100075 2.750161908597788 160 153 145 0.2544447485078945 13 7281 11 6380 9 7147
164 -2.7974012794580174 -1.0442064362555346 2.7601560740619187 86 81 77 1.5725744187353463 13 6506 11 6407 9 7583
165 -2.7974012794580174 -1.0442064362555346 2.7601560740619187 86 81 77 1.5725744187353463 13 6505 11 6408 9 7582
166 -2.7933057857734171 -1.0426106463242601 2.7619831451100598 162 153 144 0.23079838995092472 13 7167 11 6409 9 7038
167 -2.7209573036942403 -1.0466867966429798 2.7599276302668376 161 158 152 0.49693480577368171 13 7222 11 6410 9 7101
168 -2.6277575211106576 -1.0478250340014619 2.7613199165564355 89 85 79 0.39461569506176625 13 7336 11 6413 9 7211
169 -2.5843825514516299 -1.0471094315627965 2.7614982887187609 123 115 105 0.50703056410077474 13 7748 11 6416 9 7692
170 -2.8243017548415326 -1.0289207310970736 2.7693713828649384 136 132 123 0.41471844748179021 13 7165 11 6434 9 7035
171 -2.7620935032297931 -1.0247720090600065 2.7708077379353711 156 150 136 0.69352479561604186 13 6623 11 6437 9 7097
172 -2.7237357004716274 -1.0303463177913674 2.7689221620381694 82 83 78 0.41795081400519862 13 7247 11 6438 9 7630
173 -2.6807849039399319 -1.0315013492524057 2.7682283309453215 125 124 119 0.40182269462948006 13 7692 11 6440 9 7663
174 -2.5920588447752544 -1.0364361157644297 2.7668978021333968 50 47 42 0.33479348909103096 13 7413 11 6441 9 6522
175 -2.7955366453412802 -1.0121124116557754 2.7782980903559755 162 156 144 0.40051403708107314 13 6579 11 6470 9 7096
176 -2.7273615220576497 -1.0135425736571058 2.7784523640842318 58 57 55 0.74218987682950155 13 7307 11 6475 9 7661
177 -2.6234715171028387 -1.0174886888729084 2.7777024276808078 47 40 35 0.47850670858036981 13 7411 11 6479 9 7717
178 -2.7670333981141937 -1.0048487243135038 2.7819988763016865 151 148 141 0.82405768257019829 13 7271 11 6507 9 7141
179 -2.7273164699433869 -1.0018161104792802 2.7833601601386686 54 54 54 1.1885281307612479 13 7308 11 6508 9 7174
180 -2.6799732294317828 -1.0002183339627062 2.7871975896896988 166 162 159 0.53812031864849075 13 7725 11 6509 9 7690
181 -2.6404038481827077 -1.0020365953096615 2.7865710744426666 61 62 57 0.68977683620040897 13 7773 11 6511 9 7734
182 -2.6474053600618044 -0.99699327159636952 2.7889035626368419 65 64 60 0.71377310509011493 13 7772 11 6513 9 7733
183 -2.8158187433318771 -0.98575853117322199 2.7913732920376617 181 174 164 0.20162468290782706 13 6617 11 6538
184 -2.7266829917613142 -0.99424865521957073 2.7895806588550931 97 95 96 0.37609129659912505 13 7335 11 6539 9 7204
185 -2.6690308792024635 -0.98532464668614617 2.795275358805684 31 30 27 0.55473027053892243 13 7768 11 6544 9 7730
186 -2.6693285190455294 -0.98027516959209371 2.7974582399831229 169 169 161 0.24971609357969313 13 7769 11 6545 9 7731
187 -2.8055938343269489 -0.9684191553804935 2.8023922546558717 163 156 147 0.21467963228743947 13 7303 11 6572
188 -2.6830516243760267 -0.96830336210692181 2.8049780167404119 140 140 138 0.67070851634517037 13 7766 11 6574 9 7728
189 -2.7464181020929912 -0.95093208138647545 2.8113648612804107 88 89 84 1.1392033063760429 13 7400 11 6597 9 7711
190 -2.7985646574199672 -0.93767631790575345 2.8177145482240711 74 72 71 0.32611073326790074 13 7360 11 6627
191 -2.8932674025777265 -0.87662089644998753 2.8423067198737986 165 162 157 0.43805660024391657 13 7721 11 6701
192 -2.8932674025777265 -0.87662089644998753 2.8423067198737986 165 162 157 0.43805660024391657 13 7720 11 6702
193 -2.8421248339043141 -0.86362294474217582 2.8495920504112187 177 176 172 0.81797997043247017 13 7790 11 6706
194 -2.898041670861879 -0.84989052723063607 2.8520334806303969 77 76 71 0.25660612092027901 13 7395 11 6729
195 -2.912505475448945 -0.81998102339847878 2.8635717660369981 27 25 22 0.42794672812844953 13 7784 11 6755
196 -2.912505475448945 -0.81998102339847878 2.8635717660369981 27 25 22 0.42794672812844953 13 7785 11 6756
197 -2.6508336400592998 -1.1328659041659721 2.7061513698755419 148 136 122 1.0694844436096715 13 7142 11 7816 9 7025
198 -2.5672957350358634 -1.1318795496203879 2.695921746943581 101 83 66 0.4203151851706533 13 7897 11 7817
199 -2.6788424970817739 -1.1290056800456048 2.7081157719522939 79 78 73 0.95354403420335154 13 7141 11 7827 9 7000
200 -2.6533305691989471 -1.1301339353978324 2.7081846387201849 61 57 46 1.2777176165471751 13 6491 11 7829 9 6099
201 -2.782510147766168 -1.1116661468226123 2.7226254676608876 92 44 30 0.4162460617427659 13 6434 11 7841 9 6979
202 -2.7695508148367853 -1.1128036906053729 2.7217972837201105 137 128 121 0.62754365868670681 13 7126 11 7842 9 6980
203 -2.6751999110155302 -1.1100334373101368 2.7243306221907657 40 41 35 1.2762758312781564 13 7181 11 7861 9 7051
204 -2.6751999110155302 -1.1100334373101368 2.7243306221907657 40 41 35 1.2762758312781564 13 7180 11 7862 9 7052
205 -2.5730494452853701 -1.1024202441365374 2.7209912487295109 129 112 94 0.73548303494312128 13 7677 11 7864
206 -2.7790707574761093 -1.0909841068814288 2.7343089340625624 66 63 58 1.1183366786091256 13 7131 11 7873 9 6984
207 -2.728693039271997 -1.0922487528741009 2.7346582201437393 135 131 122 0.64904083554992154 13 7586 11 7874 9 7569
208 -2.7059819808070618 -1.0988468416418551 2.7300723300360326 97 96 91 0.39128751441783821 13 7587 11 7875 9 7571
209 -2.7098265769596459 -1.0938790444416127 2.7326669105415817 127 123 114 0.32335003540090396 13 7174 11 7877 9 7587
210 -2.6789245409901161 -1.093797142196864 2.7330356559986289 116 113 106 0.6004800351641072 13 7611 11 7879 9 7605
211 -2.7630205527741105 -1.0865868758870403 2.7374755397537518 157 151 139 0.10406717040099389 13 7136 11 7891 9 6999
212 -2.7630205527741105 -1.0865868758870403 2.7374755397537518 157 151 139 0.10406717040099389 13 7137 11 7892 9 6998
213 -2.7611467975719619 -1.0825528411079193 2.7389688667075669 82 77 73 0.49165578603075605 13 7585 11 7893 9 7567
214 -2.6994450295472645 -1.0826869905552092 2.7393766248576306 138 136 123 0.65756383272812513 13 7610 11 7894 9 7072
215 -2.5980086220237091 -1.0898437003080872 2.7364023866078289 51 46 40 0.77304941553009032 13 7928 11 7899 9 7650
216 -2.6222266267867571 -1.0668847190362711 2.7493852546851656 70 70 65 0.30191828057946885 13 7693 11 7913 9 7664
217 -2.7703564125643738 -1.0553000843262534 2.7553347221444344 86 82 72 0.36965787510028481 13 7171 11 7927 9 7041
218 -2.7644419862931078 -1.0532765114704565 2.7559914357880757 144 138 125 0.17835510272772467 13 7607 11 7928 9 7584
219 -2.7465936389016337 -1.0541572995633608 2.7555431738289724 75 72 65 0.33499225330110588 13 7199 11 7930 9 7601
220 -2.7465936389016337 -1.0541572995633608 2.7555431738289724 75 72 65 0.33499225330110588 13 7198 11 7931 9 7602
221 -2.694887915197838 -1.0556731632177434 2.7550126854247212 122 121 115 0.3618622978828841 13 7648 11 7932 9 7632
222 -2.6640585422857752 -1.058107108526281 2.7539642863156018 166 157 145 0.21923346766612908 13 7926 11 7935 9 7951
223 -2.6574257031202162 -1.0613278746474499 2.7521471522010668 57 54 49 0.50648564867267853 13 7673 11 7936 9 7146
224 -2.6315465794802266 -1.0578745296939969 2.7546287026509289 161 157 151 0.32394990169957022 13 7936 11 7937 9 7965
225 -2.5518938637423294 -1.0643163338859243 2.7480822519924715 168 153 126 1.3793604294153361 13 7951 11 7939 9 7695
226 -2.5518938637423294 -1.0643163338859243 2.7480822519924715 168 153 126 1.3793604294153361 13 7950 11 7940 9 7694
227 -2.8230658838782503 -1.0418885828119944 2.7627201566577133 54 51 46 0.32998348603365463 13 7584 11 7947 9 7566
228 -2.7597960676647055 -1.0387585731780424 2.7637842825180723 70 66 55 0.68246365468927772 13 7221 11 7952 9 7098
229 -2.7310822317280001 -1.0433579887051025 2.7614256894904514 66 65 61 0.67636777938375692 13 7626 11 7953 9 7621
230 -2.7126702614074212 -1.044848124593116 2.760438471451351 92 91 87 0.83406099836329817 13 7647 11 7954 9 7631
231 -2.6975747514987782 -1.043218863179358 2.7615605555302474 82 81 77 0.1419262795271434 13 7670 11 7955 9 7645
232 -2.6936082349862369 -1.0402485825205472 2.7641886812890126 169 162 154 0.48915374368196246 13 7924 11 7956 9 7949
233 -2.5582560536422196 -1.0510014157609622 2.7573569390140489 157 139 122 0.72696028160905968 13 7960 11 7958 9 7720
234 -2.5511114386343769 -1.0431886330996094 2.7611037622367065 164 147 124 1.2258795554343638 13 7977 11 7959 9 8022
235 -2.795380290931555 -1.0340611710337648 2.7668470106624312 178 172 160 0.53208211584032428 13 7197 11 7971 9 7600
236 -2.773080328286686 -1.0206446243679101 2.7735652413836194 174 165 156 0.64570259826913845 13 7624 11 7986 9 7619
237 -2.6628861359141776 -1.0118656456710367 2.7809485462452734 46 47 42 0.78614742262639836 13 7949 11 7987 9 7994
238 -2.5879932453293182 -1.0161305155516693 2.7795935498787525 67 62 56 0.59203270694224186 13 7997 11 7988 9 8029
239 -2.7977609112157742 -1.0039689666120377 2.785036323942657 57 55 50 0.80628062212354246 13 7245 11 7995 9 7115
240 -2.7507537893188871 -0.99942204144983227 2.7865130582037412 88 87 85 0.099538044107236545 13 7687 11 7997 9 7659
241 -2.8337966019576588 -0.98615414526841039 2.7926124487737889 172 168 159 0.1130857044074271 13 7645 11 8008
242 -2.8004745278759531 -0.98729557511232613 2.7923712476109612 62 61 56 0.30451597180947176 13 7269 11 8009
243 -2.781116830531805 -0.99007110342881854 2.7899715624094767 35 34 32 0.5805123192955487 13 7667 11 8010 9 7947
244 -2.7416373682078392 -0.9858662676128378 2.7935285841901094 84 83 79 0.35820834519550543 13 7706 11 8012 9 7672
245 -2.7386219158129368 -0.96743334657883551 2.8032778896314952 73 73 71 0.50099589800238575 13 7948 11 8029 9 7689
246 -2.7404854978557771 -0.95383589215640019 2.8100339644415895 178 179 174 0.69240797482877792 13 7745 11 8035 9 7713
247 -2.7344905774807042 -0.95007264227659505 2.8123392567509935 103 102 98 0.97560788777744589 13 7746 11 8036 9 7727
248 -2.705385533738367 -0.95638588681574621 2.8094768269749086 70 70 68 0.53824671454853734 13 7974 11 8037 9 8017
249 -2.773426140978565 -0.94361452960295766 2.8160002507801658 67 67 65 0.09786884406716144 13 7724 11 8046
250 -2.7627800859372669 -0.91743672755317329 2.8286225250014283 164 164 162 0.0016447995652951702 13 7989 11 8062
251 -2.8740499988494586 -0.87012520789580927 2.8461835384984102 177 172 166 0.1684703117493459 13 7741 11 8120
252 -2.8962501615189686 -0.84020037660233682 2.8562809288119055 38 37 35 0.1931070650043813 13 7760 11 8148
253 -2.8678900870170332 -0.85008737419662928 2.8536049031073452 47 47 47 1.2849038451899777 13 7786 11 8149
254 -2.7847667926992128 -1.1155697375984435 2.7201530411678601 124 118 106 0.42456489151422111 13 7568 11 8892 9 7551
255 -2.7847667926992128 -1.1155697375984435 2.7201530411678601 124 118 106 0.42456489151422111 13 7567 11 8893 9 7552
256 -2.7204993300004734 -1.118909206390261 2.7182335375867086 58 57 52 0.42496148864494515 13 7571 11 8894 9 7890
257 -2.5671155929826042 -1.1184427671004884 2.7069982418152838 106 67 43 1.1007797009211333 13 7903 11 8895
258 -2.7682246483187876 -1.1018651279572249 2.7284077311959143 110 106 95 0.30170954253939919 13 7570 11 8899 9 7883
259 -2.7279018409892122 -1.1044157454428638 2.7251401398605917 52 52 51 0.87504606024142895 13 7576 11 8900 9 7559
260 -2.610386993828516 -1.1161196571112013 2.7211922225815162 77 69 56 0.97134525623920365 13 7614 11 8901 9 7929
261 -2.5662667134990449 -1.1041420473446373 2.7184496576279327 103 66 49 0.72120747322443168 13 7929 11 8902
262 -2.73113921600455 -1.0955203875206263 2.7313455864041001 88 85 80 0.04089283916284097 13 7880 11 8906 9 7896
263 -2.5446243792496079 -1.0976157634945223 2.7213667301795361 161 146 123 0.013557084986761938 13 8081 11 8908
264 -2.7101155275415918 -1.0866277280477985 2.736950895978151 158 150 137 0.95608741753107651 13 7595 11 8912 9 7903
265 -2.5975212165318311 -1.084032352796191 2.7398242062123219 56 51 45 0.82992629329669387 13 8070 11 8913 9 7953
266 -2.5975212165318311 -1.084032352796191 2.7398242062123219 56 51 45 0.82992629329669387 13 8071 11 8914 9 7954
267 -2.8029002778096102 -1.0749830442935835 2.7439724269561072 131 127 116 0.74372006550058467 13 7575 11 8920 9 7558
268 -2.7031860287753826 -1.0698057852773559 2.7477214318979879 126 122 111 0.62207109830844209 13 7628 11 8922 9 7622
269 -2.5912617677008765 -1.0713643438893545 2.7471543493609185 100 91 82 0.91902997304176848 13 8092 11 8923 9 8135
270 -2.5433097557678312 -1.0717974269597919 2.7419035412842137 160 143 120 1.6556567650576444 13 7952 11 8924 9 7696
271 -2.8044501158755737 -1.0567784784252368 2.7537758061328343 151 143 130 0.5388634585122789 13 7877 11 8931 9 7895
272 -2.7512041507959082 -1.0574035540413782 2.7532103161472277 164 156 143 0.24247545939875148 13 7896 11 8933 9 7919
273 -2.6833192030581094 -1.0537471474118432 2.7561908839253531 139 134 128 0.74670303960664686 13 7916 11 8935 9 7939
274 -2.5429224701380466 -1.0625892066628635 2.7487896959927753 98 70 51 1.9375766251235689 13 8111 11 8936 9 8009
275 -2.81082593086174 -1.0443405557090295 2.7624335008378385 83 84 78 0.3547695983833356 13 7593 11 8942 9 7894
276 -2.6699582251152969 -1.0439064288697262 2.7620918032785653 107 106 102 0.24359333259852858 13 7935 11 8946 9 7962
277 -2.8079295774599053 -1.0259489742608245 2.7707470066732491 167 161 149 0.51616950053420851 13 7606 11 8949 9 7913
278 -2.5827401081602828 -1.0321641355015594 2.7699785696896404 56 51 46 1.0180400900924214 13 8124 11 8952 9 8021
279 -2.832792119014921 -1.0082030852601611 2.7820282029855039 157 150 139 0.1854143230107429 13 7605 11 8968
280 -2.6871711330580688 -1.0042315024181605 2.7845103055560121 80 79 77 0.48335827906814832 13 8102 11 8971 9 7993
281 -2.8418426799290004 -0.98753026172537073 2.7913442907369692 72 71 67 0.53607736673242157 13 7899 11 8979
282 -2.7916426034687651 -0.99433081145501068 2.7884047154215486 81 82 77 0.039580343329026713 13 7922 11 8980
283 -2.6833563106503391 -0.99217097939948085 2.7910765582135642 53 53 51 0.3838127159558094 13 7959 11 8981 9 8006
284 -2.8204810872477126 -0.96733970665429136 2.8038317825798771 177 169 159 0.050032858803931227 13 7666 11 8989
285 -2.7993798263115366 -0.97487627892638939 2.7983225755743892 139 135 124 0.045267829321510786 13 7933 11 8991
286 -2.7747627647381257 -0.96720655374404529 2.8033544448799623 180 177 170 0.18429313671308672 13 7940 11 8992
287 -2.7569605784617499 -0.97247528519988491 2.8003331703380785 174 169 165 0.059118750926397255 13 8086 11 8993 9 8147
288 -2.689602763053371 -0.97172946465945487 2.8026154001305623 82 82 82 0.5125313140065676 13 7975 11 8994 9 8177
289 -2.8844435106768724 -0.85661673853331877 2.8498071523063504 177 174 167 0.35500573787676248 13 7969 11 9057
290 -2.7362272144851638 -1.127522966274153 2.7098054632655435 88 86 79 1.148396021851078 13 7859 11 9453 9 7876
291 -2.6726606586949906 -1.1289547631868087 2.7088170603519215 76 75 70 0.90588345822412952 13 7871 11 9454 9 7892
292 -2.57570320827522 -1.1152865664009468 2.7112339502832197 134 117 99 0.91797134181215578 13 8051 11 9459
293 -2.7829067735858457 -1.1010532355828699 2.7291062197072034 87 84 79 0.71146449302363735 13 7864 11 9465 9 7880
294 -2.5543294791735223 -1.0990235083057969 2.7212474785122467 73 59 35 0.39095127708936916 13 8074 11 9466
295 -2.7939958594155918 -1.0896554345100784 2.7356050017612064 124 121 116 0.61227204728980433 13 7863 11 9468 9 7879
296 -2.7764853472106275 -1.0957992797950133 2.731370794125024 159 151 138 0.37812448766800538 13 7865 11 9469 9 7881
297 -2.7764853472106275 -1.0957992797950133 2.731370794125024 159 151 138 0.37812448766800538 13 7866 11 9470 9 7882
298 -2.7563429950403067 -1.0917003895223076 2.7339553775443646 88 85 80 0.21862090180347024 13 7870 11 9471 9 7889
299 -2.5684145170569006 -1.0954397460261847 2.7250237799511297 140 123 105 0.049889390460416141 13 8073 11 9472
300 -2.7998882924279895 -1.0833027039701153 2.7399348416037572 125 121 109 0.46584174756375463 13 7861 11 9475 9 7877
301 -2.7021364838894737 -1.0851878445915002 2.7364471978829101 53 54 48 0.42566031041189051 13 7885 11 9476 9 7588
302 -2.6744013972051928 -1.0852464487815112 2.7381226622158623 164 157 147 0.60144603618798154 13 8045 11 9477 9 8110
303 -2.7285804895864656 -1.0645979583484344 2.7491332656740757 89 85 79 0.53766476525885376 13 8044 11 9482 9 8108
304 -2.7919898824479135 -1.0575324628848164 2.7533520220520815 64 65 60 0.71896388709986814 13 8036 11 9489 9 8099
305 -2.7654575973033757 -1.0423573381278033 2.7623216736095184 154 146 133 1.2841540552921071 13 7895 11 9496 9 7915
306 -2.5653529674505466 -1.0449098185353578 2.7614847721269196 64 51 45 0.65327768207402481 13 8220 11 9499 9 8313
307 -2.7499108187874022 -1.02704427628481 2.7696956274954134 163 159 149 0.78589401489326427 13 8055 11 9503 9 8256
308 -2.7225028773674924 -1.0368626746465408 2.7652898504837515 172 169 160 0.59014536689560726 13 8056 11 9505 9 8258
309 -2.6028354572938706 -1.034355509865192 2.7681112964047818 148 136 122 0.89353236309905515 13 8214 11 9507 9 8311
310 -2.808036270012976 -1.0185514927611805 2.7769614626410126 83 80 75 1.5346911930659173 13 8049 11 9509 9 8106
311 -2.8149369225055749 -1.0056750831422185 2.7812273283297517 165 162 147 0.30131130729025407 13 7900 11 9519
312 -2.7054454690350975 -0.99686122076943384 2.7884568227122095 65 65 63 1.0342359123128944 13 8087 11 9520 9 8162
313 -2.6959456648127236 -0.99888643498699747 2.7883230842484719 186 183 176 1.5888909135549329 13 8100 11 9522 9 8163
314 -2.8012340629394963 -0.99402962208039691 2.787297095925624 174 165 156 0.40641116330274424 13 8054 11 9528 9 8122
315 -2.8076941949994785 -0.96470524154193948 2.8041419739933144 165 164 156 0.33428375278525335 13 8076 11 9537
316 -2.7570956552179653 -0.9650470594422117 2.8038118593907493 62 62 60 0.3286273412886152 13 8099 11 9538 9 8296
317 -2.7913880542506182 -0.94361767124408724 2.8144963444625524 169 165 156 0.1593932790725609 13 8098 11 9556
318 -2.8952779468591876 -0.84717353876480317 2.8576555444898828 38 37 35 0.5020853718511592 13 8115 11 9591
319 -2.8869145599955282 -0.8408951629041308 2.8579479704166011 179 176 171 0.2666218146982946 13 8117 11 9592
320 -2.6892485476069368 -1.1277808358366879 2.7102236571651668 45 44 40 1.2099590736461661 13 8034 11 9891 9 8097
321 -2.6946507927986429 -1.1184535797530744 2.7182341241482617 36 35 33 0.44388175703701466 13 8033 11 9902 9 8101
322 -2.7395611697229332 -1.1017855758131887 2.728763574964757 162 154 143 0.22358805023303505 13 8171 11 9907 9 8241
323 -2.555370277571368 -1.1072286768321784 2.7142542098728688 193 180 163 0.71924103090296643 13 8194 11 9908
324 -2.7956552650801019 -1.0957954943732442 2.7329119103423216 151 143 132 0.6267320884895714 13 7862 11 9910 9 7878
325 -2.7571281469796824 -1.0768019126636483 2.741472456770333 163 156 140 0.58330897241056745 13 8038 11 9916 9 8245
326 -2.6657646685529803 -1.0642631441416304 2.7499278372432254 163 156 146 0.62476913617149743 13 8186 11 9922 9 8259
327 -2.5542916354096841 -1.0591689725281461 2.7510281261619314 167 146 127 0.88662563954157114 13 8284 11 9925 9 8314
328 -2.6484902802775174 -1.0453297572868929 2.7616129417283957 138 135 129 0.57823147468762481 13 8198 11 9930 9 8279
329 -2.678267355850251 -1.0255290338914511 2.7718936182112031 67 66 64 0.6018305106630969 13 8204 11 9939 9 8282
330 -2.6080056223059729 -1.0152591228971992 2.780103010427903 33 32 28 0.45752812293592554 13 8287 11 9944 9 8323
331 -2.8045397577809719 -1.0025681376779361 2.7834629653074465 36 38 36 0.11953625435431392 13 8185 11 9959
332 -2.7587204904785914 -0.99397604701369946 2.7889603295317418 69 67 68 0.40545759370662005 13 8264 11 9973 9 8409
333 -2.7705315402330588 -0.98294960282187249 2.7933916612165275 181 177 166 0.73207465897734847 13 8263 11 9974 9 8408
334 -2.7184374150539337 -0.98949203437473787 2.7921715454060045 180 173 164 0.52838801247436462 13 8279 11 9975 9 8431
335 -2.8217838273442544 -0.98148020224222243 2.796417601411699 181 177 166 0.64075354180816912 13 8184 11 9993
336 -2.7889211966048904 -0.97375991311090382 2.80031284416944 38 37 33 1.0843207844242142 13 8262 11 9994 9 8407
337 -2.7375733111272109 -0.97109120208728139 2.800969663310565 69 69 67 0.44401586126275233 13 8209 11 9996 9 8430
338 -2.716641722675186 -0.96955214038090809 2.8026979299403063 60 58 59 0.72237887683496904 13 8282 11 9997 9 8436
339 -2.7362551044671322 -0.9605284395840803 2.8068994963614342 179 176 171 0.68659710387690109 13 8281 11 10014 9 8435
340 -2.7348841499054108 -0.93926396401299583 2.8178295615204654 184 181 174 1.000626999288581 13 8286 11 10027 9 8444
341 -2.8660517256191138 -0.86267361156082856 2.849196108307503 179 175 164 0.26516753715395674 13 8285 11 10038
342 -2.6589993779638532 -1.1126232916644578 2.7219242886318491 92 87 81 0.78732402080004282 13 8247 11 10245 9 8391
343 -2.6589993779638532 -1.1126232916644578 2.7219242886318491 92 87 81 0.78732402080004282 13 8248 11 10246 9 8390
344 -2.7517411283747295 -1.0682418479755171 2.7471272289366935 58 57 53 0.053954566103011387 13 8246 11 10275 9 8389
345 -2.6297922575619714 -1.0597561374311262 2.7530288125828255 149 142 136 0.25117751890059475 13 8270 11 10289 9 8412
346 -2.7863360453521442 -1.0493088407339468 2.7569717893057453 124 116 105 1.1895379428818875 13 8176 11 10300 9 8388
347 -2.6165735944786279 -1.0304086015782752 2.7715668984581407 154 141 128 1.0816338225043935 13 8324 11 10318 9 8547
348 -2.7385558393591012 -1.0194756689243456 2.7748046279435714 116 115 113 0.60158646400634253 13 8257 11 10333 9 8404
349 -2.6776737274249069 -1.0140787565026046 2.778888523494337 170 165 159 0.44194880139423204 13 8276 11 10334 9 8418
350 -2.6776737274249069 -1.0140787565026046 2.778888523494337 170 165 159 0.44194880139423204 13 8277 11 10335 9 8419
351 -2.74214162692315 -1.0030381792812813 2.7835443015305685 177 172 166 0.87584390360454956 13 8266 11 10341 9 8411
352 -2.74214162692315 -1.0030381792812813 2.7835443015305685 177 172 166 0.87584390360454956 13 8267 11 10342 9 8410
353 -2.7251880764091307 -1.0015551457217895 2.7857457222051982 140 139 137 0.81180996859604804 13 8268 11 10343 9 8543
354 -2.7251880764091307 -1.0015551457217895 2.7857457222051982 140 139 137 0.81180996859604804 13 8269 11 10344 9 8544
355 -2.6636271157699252 -1.0075958815593509 2.7831701069379906 59 58 56 0.89196840722192172 13 8280 11 10345 9 8433
356 -2.6738898175406551 -1.083010077923511 2.7394133368034073 166 160 148 0.39917721119385124 13 8313 11 10506 9 8534
357 -2.7195677232344084 -1.1239474545663894 2.7127257584722591 70 71 66 1.4561719918052685 13 8304 11 10615 9 8526
358 -2.7259539635527519 -1.0791437424256973 2.74123905981704 158 150 137 0.7849630188654505 13 8340 11 10631 9 8606
